# .PCD v0.7 - Point Cloud Data file format
VERSION 0.7
FIELDS x y z
SIZE 4 4 4
TYPE F F F
COUNT 1 1 1
WIDTH 1430
HEIGHT 1
VIEWPOINT 0 0 0 1 0 0 0
POINTS 1430
DATA ascii
0.10740382 -0.13151743 1.2532095
-0.11337683 -0.12811375 1.2567724
-0.10835722 -0.12867323 1.2511885
0.10691074 -0.12860587 1.2527368
-0.11234614 0.078301854 1.257947
-0.10507481 0.077955551 1.2523834
-0.094725154 0.077809855 1.2500429
-0.084573805 0.077807918 1.2500117
-0.074425839 0.077808842 1.2500266
-0.065405227 0.077809677 1.2500399
-0.055256795 0.0778106 1.2500548
-0.045108128 0.077811532 1.2500697
-0.034959212 0.077812463 1.2500848
-0.024810061 0.077813394 1.2500997
-0.014660658 0.077814326 1.2501147
-0.004511022 0.077815257 1.2501296
0.0045110844 0.077816084 1.2501428
0.014661187 0.077817008 1.2501578
0.024811525 0.077817947 1.2501727
0.03496211 0.077818871 1.2501876
0.045112938 0.077819802 1.2502027
0.055264015 0.077820733 1.2502177
0.065415323 0.077821657 1.2502325
0.074438915 0.077822492 1.2502458
0.084590688 0.077823423 1.2502608
0.094756007 0.077834956 1.2504461
0.10404103 0.07802821 1.2535508
0.11018281 0.07837747 1.2591617
-0.11235099 0.081709825 1.2580012
-0.10507896 0.081348144 1.2524328
-0.094726913 0.08119446 1.2500668
-0.084576987 0.081193939 1.2500587
-0.074428648 0.081194907 1.2500737
-0.065407686 0.081195772 1.2500869
-0.05525887 0.081196748 1.2501019
-0.045109827 0.081197716 1.2501168
-0.034960527 0.081198677 1.2501318
-0.024810994 0.081199653 1.2501467
-0.01466121 0.081200622 1.2501616
-0.004511192 0.081201598 1.2501767
0.0045112544 0.081202462 1.2501899
0.01466174 0.081203438 1.2502048
0.024812458 0.081204399 1.2502198
0.034963429 0.081205375 1.2502348
0.045114636 0.081206344 1.2502497
0.055266093 0.08120732 1.2502648
0.065417781 0.081208289 1.2502797
0.074441716 0.081209145 1.250293
0.084593877 0.081210122 1.2503078
0.094759591 0.081222177 1.2504934
0.10404506 0.081423908 1.2535993
0.11018597 0.080651581 1.2591977
-0.11242128 0.13626823 1.2587883
-0.10852954 0.13679063 1.2531708
0.10636675 0.13691698 1.2543283
-0.083818324 0.14611496 1.2555795
-0.078293413 0.14637469 1.2578114
0.077080496 0.14622767 1.256548
0.082713805 0.1461634 1.2559959
-0.083826825 0.15519214 1.2557065
-0.078299567 0.15432964 1.2579103
0.077087887 0.15531099 1.2566684
0.082722388 0.15524398 1.2561262
-0.083836384 0.16540602 1.2558498
-0.078307472 0.16455927 1.2580372
0.077096179 0.16553168 1.2568038
0.082732067 0.16546176 1.256273
-0.083983779 0.17529623 1.2553822
-0.078315482 0.17479114 1.2581658
0.077103555 0.17461862 1.256924
0.082693137 0.1755759 1.2556797
-0.12324469 0.1886093 1.2579824
-0.11553526 0.18780936 1.2574136
-0.10453766 0.18748587 1.2595749
-0.0943271 0.18429989 1.257225
-0.088813379 0.1828212 1.2525433
0.086873539 0.18334782 1.2533129
0.094229214 0.18618488 1.258456
0.10454187 0.18749343 1.2596256
0.11541343 0.18800774 1.2573838
0.12263387 0.18962672 1.2587006
-0.12355436 0.19496197 1.2564949
-0.11856599 0.19535169 1.2517287
0.11620926 0.19477771 1.2525111
0.12263057 0.19529882 1.2586658
-0.12338622 0.20482884 1.2564328
-0.11857842 0.20553599 1.2518599
0.11628404 0.24499798 1.2531855
0.12144014 0.24515027 1.2581078
-0.12362947 0.25065565 1.2572585
-0.1161853 0.25154683 1.2504126
-0.10325749 0.25643855 1.2578104
0.10339081 0.2556366 1.259447
0.11894775 0.2503567 1.255759
0.12144954 0.25084439 1.2582052
-0.1201193 -0.13155924 1.2681273
-0.11739499 -0.13107207 1.2634315
0.11525792 -0.13122784 1.2649328
-0.12012483 -0.12813313 1.2681857
-0.11461498 -0.12691884 1.2629311
-0.10478427 -0.12642452 1.2625473
-0.095673092 -0.12642515 1.2625538
-0.085422024 -0.12642458 1.2625481
-0.07517121 -0.1264243 1.2625453
-0.064920522 -0.12642418 1.2625442
-0.054669864 -0.12642406 1.2625428
-0.045558177 -0.12642395 1.2625418
-0.035307556 -0.12642382 1.2625405
-0.025056951 -0.1264237 1.2625393
-0.014806367 -0.12642358 1.2625382
-0.0045558009 -0.12642345 1.2625368
0.0045557958 -0.12642336 1.2625357
0.014806323 -0.12642322 1.2625345
0.025056832 -0.12642309 1.2625332
0.035307318 -0.12642297 1.2625321
0.045557786 -0.12642285 1.2625308
0.054669298 -0.12642275 1.2625297
0.064919725 -0.12642261 1.2625285
0.075170137 -0.12642249 1.2625273
0.085420527 -0.12642238 1.2625262
0.095670186 -0.12642135 1.2625159
0.10478166 -0.12642139 1.2625163
0.11460643 -0.12764226 1.2649404
-0.11510823 0.077373028 1.2675476
-0.10532521 0.076704234 1.269065
-0.095021449 0.076704077 1.2690625
-0.084718332 0.076704435 1.2690685
-0.075559728 0.076704577 1.2690707
-0.065256253 0.076704726 1.2690732
-0.054952748 0.076704875 1.2690758
-0.044649199 0.076705039 1.2690783
-0.034345604 0.07670518 1.2690809
-0.02518682 0.076705322 1.2690831
-0.014883148 0.076705471 1.2690856
-0.0045794388 0.076705627 1.2690881
0.00457945 0.076705769 1.2690905
0.014883238 0.076705918 1.2690929
0.02518707 0.076706067 1.2690955
0.034346066 0.076706208 1.2690977
0.04464997 0.076706357 1.2691003
0.054953922 0.076706514 1.2691028
0.065257914 0.076706663 1.2691052
0.075561941 0.076706812 1.2691078
0.08472129 0.07670711 1.2691128
0.095025562 0.076707348 1.2691168
0.10532776 0.076706097 1.2690959
0.11369171 0.077546813 1.2678888
-0.11636371 0.080996796 1.2645874
0.11421517 0.08109127 1.2660624
-0.11533105 0.13531187 1.2657793
-0.10502309 0.13356197 1.2654248
-0.094750032 0.13356331 1.2654374
-0.084476054 0.1335635 1.2654393
-0.075343683 0.13356382 1.2654423
-0.065069072 0.1335628 1.2654327
-0.054794561 0.13356173 1.2654225
-0.045662116 0.1335617 1.2654221
-0.03538819 0.13356188 1.2654239
-0.025114233 0.13356206 1.2654256
-0.014840248 0.13356224 1.2654274
-0.0045662355 0.13356242 1.265429
0.0045662429 0.13356258 1.2654306
0.01484031 0.13356277 1.2654324
0.025114406 0.13356295 1.2654341
0.035388514 0.1335631 1.2654355
0.045662627 0.13356318 1.2654363
0.054794572 0.13356178 1.2654229
0.065069452 0.13356358 1.26544
0.075343534 0.13356359 1.2654402
0.084474958 0.13356173 1.2654226
0.094750158 0.13356343 1.2654387
0.1050242 0.13356341 1.2654383
0.11301383 0.13583831 1.265373
-0.094747499 0.17921221 1.2653402
-0.074106194 0.17899489 1.2638059
-0.064985529 0.17899522 1.2638083
-0.054724529 0.17899483 1.2638054
-0.045603901 0.17899531 1.2638088
-0.035343133 0.17899588 1.2638128
-0.025082303 0.17899644 1.2638168
-0.014821405 0.178997 1.2638206
-0.0045604454 0.17899756 1.2638246
0.0045604622 0.17899805 1.2638282
0.014821544 0.17899859 1.2638321
0.025082683 0.17899913 1.2638359
0.03534323 0.17899649 1.2638172
0.045603741 0.17899466 1.2638042
0.054725032 0.17899643 1.2638167
0.064986743 0.17899856 1.2638319
0.072967425 0.17899823 1.2638294
0.087789617 0.1789996 1.2638391
0.092432372 0.17915539 1.264939
-0.13255611 0.18854812 1.2667112
-0.12754031 0.18789288 1.2623093
-0.10176828 0.18409659 1.2675405
-0.098588973 0.18292946 1.2634262
0.096515089 0.18343619 1.2645607
0.12536047 0.18803397 1.2632571
0.13163355 0.18886553 1.2688437
-0.13231976 0.19473474 1.2656631
-0.12859967 0.19460668 1.2615393
-0.12861067 0.2048666 1.2616472
0.12650576 0.24502626 1.263328
0.13165537 0.24499352 1.2690539
-0.13383682 0.25051507 1.2680289
0.12651999 0.25074783 1.2634506
0.13166328 0.25073266 1.2691302
-0.12470869 -0.13161264 1.276049
0.12209651 -0.13130683 1.276818
-0.12379205 -0.12838817 1.2745126
0.12163983 -0.12854381 1.2760576
-0.12182458 0.078150257 1.2739747
0.11829499 0.078097679 1.2731175
0.12104506 0.078391105 1.2779008
-0.12183021 0.081601813 1.2740335
0.11829955 0.081546292 1.2731667
0.12104976 0.081852697 1.2779504
-0.12165139 0.13636579 1.2745689
0.11838674 0.136777 1.274105
0.1211352 0.1361329 1.2788525
-0.1026931 0.17884614 1.279049
-0.094582513 0.17878404 1.278605
-0.073820554 0.17878419 1.2786062
-0.064593047 0.17878431 1.2786071
-0.05536557 0.17878467 1.2786095
-0.044984661 0.17878523 1.2786134
-0.0346037 0.1787858 1.2786176
-0.025376115 0.17878629 1.2786212
-0.014995022 0.17878684 1.2786251
-0.004613867 0.17878741 1.2786293
0.0046138838 0.17878792 1.2786329
0.014995101 0.17878786 1.2786324
0.025375839 0.1787844 1.2786076
0.034603529 0.17878486 1.2786109
0.044985216 0.17878737 1.2786288
0.055366479 0.17878759 1.2786304
0.064594589 0.17878857 1.2786375
0.072668545 0.17878771 1.2786312
0.088814877 0.17878319 1.278599
0.095146418 0.17900866 1.2769334
0.10034958 0.17878374 1.278603
-0.1418829 0.18802367 1.2786871
-0.13635942 0.18806697 1.2737787
-0.12525603 0.18730929 1.273829
-0.11489965 0.1872863 1.2736726
-0.10575894 0.18392333 1.2742727
0.099961862 0.18039095 1.2736628
0.10438646 0.18513383 1.27469
0.11490476 0.18729463 1.2737292
0.12526335 0.1873202 1.2739031
0.13577017 0.188308 1.2754129
-0.14170793 0.1947045 1.2771103
-0.13770199 0.19507569 1.2720187
0.13721773 0.23535876 1.2739083
0.14188474 0.23301402 1.2787039
-0.14178547 0.2443783 1.2778093
-0.13792358 0.24509491 1.2728872
0.13694793 0.24511665 1.2756625
-0.14179401 0.25015691 1.2778862
-0.13645653 0.25112587 1.2711205
0.13962777 0.25040683 1.2791628
-0.13122621 -0.13122621 1.2873052
-0.1284191 -0.13073297 1.2824665
0.12766442 -0.13114393 1.286498
-0.13134351 -0.12785551 1.288456
-0.12619624 -0.12712689 1.2881501
-0.11516766 -0.1268007 1.2895392
-0.10469647 -0.12679906 1.2895225
-0.095390372 -0.12679939 1.2895259
-0.084920496 -0.12679911 1.2895229
-0.074450552 -0.12679859 1.2895176
-0.06514404 -0.1267982 1.2895137
-0.054674357 -0.12679796 1.2895114
-0.044204757 -0.12679784 1.28951
-0.03489846 -0.12679774 1.2895088
-0.025592178 -0.12679762 1.2895079
-0.015122637 -0.1267975 1.2895066
-0.0046531148 -0.12679736 1.2895052
0.0046531097 -0.12679726 1.2895042
0.015122592 -0.12679712 1.2895029
0.025592055 -0.12679701 1.2895015
0.034898225 -0.1267969 1.2895004
0.04420438 -0.12679678 1.2894993
0.054673791 -0.12679665 1.2894981
0.065143168 -0.12679653 1.2894968
0.074449278 -0.12679642 1.2894956
0.084918618 -0.12679629 1.2894943
0.095387883 -0.12679611 1.2894926
0.10469387 -0.12679595 1.2894906
0.11516227 -0.12679482 1.2894791
0.12631017 -0.1274718 1.2884954
-0.12690654 0.078301899 1.2827504
0.1247459 0.078398488 1.2843329
-0.12784348 0.081493206 1.2844129
0.12521502 0.081154302 1.2851816
-0.12636183 0.13505433 1.2850602
-0.11474673 0.13329163 1.2848263
-0.10431609 0.13329279 1.2848375
-0.095044345 0.13329391 1.2848483
-0.085771777 0.13329399 1.2848489
-0.075340204 0.13329419 1.2848511
-0.064907722 0.13329263 1.2848359
-0.055634994 0.13329218 1.2848315
-0.045203365 0.13329199 1.2848297
-0.034771867 0.13329217 1.2848314
-0.0254994 0.13329232 1.2848331
-0.015067848 0.13329253 1.2848349
-0.0046362672 0.1332927 1.2848365
0.0046362747 0.13329287 1.2848382
0.015067911 0.13329306 1.28484
0.02549959 0.1332933 1.2848423
0.034772135 0.1332932 1.2848413
0.045203723 0.13329306 1.28484
0.05563502 0.13329221 1.2848319
0.064908691 0.1332946 1.2848549
0.075339213 0.13329247 1.2848343
0.085771084 0.13329288 1.2848382
0.09504512 0.13329498 1.2848586
0.10431701 0.13329399 1.284849
0.11475049 0.13329604 1.2848686
0.12480903 0.13541463 1.2861176
-0.11028218 0.17993408 1.2868298
-0.10767066 0.17945111 1.2833757
0.10414648 0.17936069 1.2827291
-0.15003571 0.18958001 1.2892712
-0.14472865 0.18768235 1.2869066
-0.13481396 0.18711236 1.2882969
-0.12550257 0.18709168 1.2881546
-0.11493502 0.18575107 1.2869121
-0.10982581 0.1838125 1.2815048
0.1072103 0.18269289 1.2833961
0.113676 0.18602893 1.2876905
-0.14567783 0.19504818 1.2827443
0.14508599 0.23468082 1.2843261
-0.15011327 0.24204312 1.2899377
-0.14606458 0.24489562 1.2838832
0.14391373 0.24517764 1.2853618
-0.1445349 0.25091261 1.2817464
-0.13547951 -0.13197358 1.2946367
0.13379119 -0.13144785 1.2971421
-0.13548583 -0.12847582 1.294697
0.13284706 -0.12816916 1.2955425
-0.13300361 0.078167483 1.2932745
0.12941892 0.078117728 1.2924513
0.13225335 0.078415707 1.2973813
-0.13300774 0.080503345 1.2933147
0.12942241 0.080451764 1.2924861
0.13225693 0.080758654 1.2974163
-0.13284519 0.13611044 1.2940047
0.12952518 0.13652675 1.2935123
0.13235548 0.13586941 1.2983832
-0.11334725 0.17878097 1.2952967
-0.10504027 0.17856844 1.2937567
-0.095703907 0.17856951 1.2937646
-0.074695699 0.17856939 1.2937636
-0.065358587 0.17856899 1.2937608
-0.054854698 0.17856956 1.2937648
-0.044350751 0.17857014 1.2937691
-0.035013847 0.17857064 1.2937727
-0.025676895 0.17857115 1.2937765
-0.015172755 0.1785717 1.2937806
-0.0046685543 0.1785723 1.2937846
0.0046685096 0.17857109 1.2937759
0.015172519 0.17856881 1.2937593
0.025676906 0.17857113 1.2937763
0.035014071 0.17857179 1.2937809
0.044351358 0.17857257 1.2937868
0.054855071 0.17857087 1.2937744
0.065358154 0.17856781 1.2937523
0.07352794 0.17856784 1.2937527
0.089867532 0.17856795 1.2937533
0.095703095 0.17856798 1.2937535
0.10504044 0.17856874 1.293759
0.11234242 0.17904319 1.2971964
-0.15313549 0.18819879 1.2957772
-0.12077738 0.18527018 1.2998335
-0.11615779 0.18281423 1.2931312
0.11394491 0.18300745 1.2944958
0.1479748 0.23885697 1.2915863
0.15172483 0.23451339 1.2951705
-0.15206511 0.24578816 1.2933254
0.14798929 0.24470684 1.2917128
0.15090333 0.24565667 1.2967268
-0.15013513 0.25022522 1.2901256
0.14800479 0.25055927 1.2918479
-0.14267422 -0.13088296 1.307072
-0.13977829 -0.131556 1.3020633
0.13760972 -0.13172893 1.3037748
0.1405028 -0.13105723 1.3088124
-0.14267859 -0.12852864 1.307112
-0.13978475 -0.12803814 1.3021237
0.13761562 -0.12820601 1.3038309
0.14050692 -0.12869962 1.3088508
-0.14016056 0.077736124 1.3056242
-0.13446131 0.076734453 1.3006246
-0.12436847 0.076263689 1.3006002
-0.11498372 0.076264739 1.3006182
-0.10559905 0.076265991 1.3006396
-0.095039032 0.076265894 1.3006378
-0.084479377 0.076266095 1.3006413
-0.075092912 0.076266237 1.3006437
-0.065706424 0.076266386 1.3006461
-0.055146568 0.076266535 1.3006487
-0.044586681 0.076266691 1.3006513
-0.035200074 0.076266833 1.3006537
-0.025813432 0.076266967 1.3006561
-0.015253423 0.076267123 1.3006588
-0.0046933694 0.076267272 1.3006614
0.004693381 0.076267421 1.3006638
0.015253517 0.076267578 1.3006665
0.025813695 0.076267727 1.3006691
0.035200555 0.076267868 1.3006715
0.044587448 0.076268002 1.3006738
0.055147666 0.076268062 1.3006747
0.065708272 0.076268524 1.3006827
0.0750954 0.076268762 1.3006866
0.084481969 0.076268457 1.3006816
0.095043063 0.076269113 1.3006928
0.10560227 0.076268293 1.3006787
0.11499016 0.076268986 1.3006905
0.12437758 0.076269269 1.3006954
0.13483702 0.077215791 1.3034544
-0.14016703 0.081273317 1.3056846
-0.13728584 0.080963448 1.3007064
0.13655223 0.081223696 1.3048873
-0.14030094 0.13558482 1.3069321
-0.13526623 0.13408996 1.3038768
-0.12477459 0.13301441 1.3048472
-0.11535716 0.13301383 1.3048415
-0.10476361 0.13301452 1.304848
-0.094170637 0.13301603 1.304863
-0.08475364 0.13301612 1.3048639
-0.075336456 0.13301592 1.3048618
-0.064741619 0.13301459 1.3048489
-0.05414734 0.1330141 1.3048441
-0.044730328 0.13301387 1.3048419
-0.035313461 0.13301404 1.3048434
-0.024719456 0.13301423 1.3048452
-0.014125424 0.1330144 1.304847
-0.0047084796 0.13301457 1.3048487
0.0047084871 0.13301474 1.3048503
0.014125478 0.13301492 1.304852
0.024719615 0.13301507 1.3048537
0.035313658 0.13301478 1.3048508
0.044730581 0.13301465 1.3048494
0.054147508 0.13301452 1.3048481
0.064742096 0.13301562 1.3048589
0.075335413 0.13301408 1.304844
0.084753633 0.13301611 1.3048637
0.094171241 0.13301688 1.3048713
0.10476492 0.13301615 1.3048643
0.1153608 0.13301806 1.3048829
0.12477791 0.13301796 1.3048819
0.13547489 0.1348837 1.3058479
-0.12165451 0.17834787 1.3092735
-0.11631359 0.17860214 1.3076928
-0.10511895 0.1783479 1.3092735
-0.095671058 0.17834975 1.3092872
-0.075591274 0.17834818 1.3092756
-0.064961463 0.17834873 1.3092798
-0.054331578 0.17834932 1.309284
-0.044882741 0.17834984 1.3092878
-0.035433844 0.17835034 1.3092916
-0.024803767 0.17835093 1.3092958
-0.014173605 0.17835115 1.3092974
-0.004724469 0.17834841 1.3092773
0.0047244891 0.17834911 1.3092825
0.014173578 0.1783509 1.3092957
0.024803843 0.17835142 1.3092995
0.035433702 0.17834975 1.3092872
0.044882096 0.17834727 1.3092691
0.054330979 0.17834735 1.3092694
0.064960971 0.17834739 1.3092699
0.074409865 0.17834742 1.3092704
0.094488777 0.17834757 1.3092712
0.10511903 0.178348 1.3092744
0.11500809 0.17870614 1.3075906
-0.1560961 0.18764123 1.3049046
-0.14576739 0.18691134 1.3031005
-0.13517211 0.18688996 1.3029516
-0.12432895 0.18389913 1.3050992
0.15709275 0.22458023 1.3049272
-0.16148371 0.23338524 1.3066146
-0.15802988 0.23552044 1.3014638
0.15731782 0.23479322 1.3062574
-0.1573789 0.24513987 1.3029679
0.15544814 0.24494421 1.3053983
0.15391439 0.25025776 1.3024088
-0.14705947 -0.1316399 1.3146312
0.14488408 -0.13181868 1.3164165
-0.1457054 -0.12788734 1.3167089
-0.1355152 -0.12719408 1.317718
-0.12481561 -0.12719305 1.3177073
-0.11411506 -0.12719071 1.3176831
-0.10460482 -0.12718999 1.3176756
-0.095095083 -0.1271897 1.3176726
-0.085585549 -0.12718962 1.3176719
-0.074887708 -0.12719026 1.3176787
-0.064189076 -0.12718944 1.3176699
-0.054679371 -0.12718898 1.3176653
-0.045169622 -0.12718813 1.3176565
-0.035660181 -0.12718797 1.3176547
-0.024962099 -0.12718785 1.3176534
-0.014264043 -0.12718771 1.3176521
-0.0047546774 -0.12718759 1.3176509
0.0047546714 -0.12718748 1.3176497
0.014264004 -0.12718737 1.3176485
0.024961982 -0.12718724 1.3176472
0.035659939 -0.12718712 1.3176459
0.045169212 -0.127187 1.3176447
0.054678474 -0.12718688 1.3176435
0.064187713 -0.12718678 1.3176423
0.074885592 -0.12718663 1.317641
0.085583441 -0.12718651 1.3176397
0.095093019 -0.12718691 1.3176439
0.10460225 -0.12718685 1.3176432
0.11411123 -0.12718648 1.3176392
0.12480871 -0.12718603 1.3176346
0.13550621 -0.12718567 1.3176309
0.14428274 -0.12811761 1.3174431
-0.14452651 0.07818526 1.3131678
0.14234707 0.078289643 1.3149209
-0.14453319 0.08174289 1.3132284
0.14235313 0.081851736 1.3149769
-0.14438006 0.13584192 1.3139917
0.14218017 0.13600585 1.315573
-0.12705372 0.17929398 1.316219
-0.12863021 0.18316373 1.3141634
0.15993848 0.22154443 1.3132838
0.1627387 0.22569558 1.3167692
-0.16394894 0.23426832 1.3137736
0.16191354 0.23475385 1.3164968
-0.16233546 0.24409582 1.3135065
0.16028687 0.24458602 1.3161445
-0.16235648 0.25005266 1.3136765
0.16030437 0.25054979 1.3162881
-0.15298454 -0.13146907 1.3248612
0.14931314 -0.13139555 1.32412
0.1522951 -0.13190913 1.3292956
-0.15299165 -0.12788951 1.3249228
0.14931987 -0.12781781 1.3241799
0.15230218 -0.12831758 1.3293574
-0.15190631 0.077747323 1.3259021
-0.14893752 0.07863903 1.3207892
0.14774255 0.078448787 1.3242997
-0.15191101 0.080142029 1.3259431
0.14972462 0.080252394 1.3277692
-0.15206678 0.13530327 1.3273028
-0.14695109 0.1338089 1.3243812
-0.13511881 0.13272735 1.3254911
-0.12435746 0.13272768 1.3254944
-0.11479072 0.13272673 1.3254849
-0.10522591 0.13272814 1.3254991
-0.095660739 0.13272926 1.3255103
-0.084899053 0.1327295 1.3255126
-0.07413657 0.13272837 1.3255011
-0.064570278 0.13272779 1.3254955
-0.055004131 0.13272735 1.3254912
-0.04543807 0.132727 1.3254876
-0.035872184 0.13272709 1.3254884
-0.025110567 0.1327273 1.3254905
-0.014348917 0.13272747 1.3254924
-0.0047829775 0.13272765 1.3254941
0.0047829854 0.1327278 1.3254957
0.014348983 0.13272807 1.3254982
0.025110682 0.13272791 1.3254968
0.035872336 0.13272765 1.3254941
0.045438156 0.13272727 1.3254904
0.055004667 0.13272862 1.3255038
0.064570181 0.13272762 1.3254937
0.074136421 0.13272808 1.3254985
0.08489912 0.13272962 1.3255137
0.095661327 0.1327301 1.3255184
0.10522678 0.13272925 1.3255099
0.11479467 0.13273135 1.3255311
0.1243606 0.13273102 1.3255277
0.13512245 0.13273089 1.3255265
0.14717862 0.13461265 1.3263925
-0.12269207 0.14770617 1.3204327
-0.11727258 0.14828227 1.3220239
0.11608497 0.14802828 1.3211783
0.12158649 0.14781016 1.3213624
-0.12270153 0.15486522 1.3205343
-0.11692392 0.15510492 1.3225782
0.11564466 0.15499006 1.3215989
0.12159627 0.15497479 1.3214688
-0.1227141 0.16441223 1.3206697
-0.11693427 0.1646644 1.3226953
0.11565558 0.16454339 1.3217235
0.12160932 0.16452937 1.3216106
-0.13162705 0.17829326 1.3264413
-0.12312567 0.17428128 1.321141
-0.1160302 0.17500493 1.323284
-0.10519974 0.17812231 1.3251696
-0.096832126 0.17812328 1.3251768
-0.080095261 0.17812231 1.3251694
-0.074118137 0.17812262 1.3251718
-0.064554691 0.17812315 1.3251756
-0.054991193 0.17812365 1.3251796
0.16374972 0.21514572 1.3249497
0.16587618 0.22427884 1.3266568
-0.16727476 0.23504183 1.3225754
0.16550338 0.23409562 1.3262277
-0.16578472 0.2456955 1.3221145
0.16382459 0.24513924 1.3255554
-0.16051823 -0.13155253 1.3378644
-0.15748689 -0.13103871 1.3326389
0.15681744 -0.13148341 1.3371614
-0.16052324 -0.12914276 1.3379061
-0.15324131 -0.12437286 1.3333539
-0.14707445 -0.12417081 1.3363547
0.14572078 -0.12404503 1.335001
0.15295359 -0.12525281 1.3350172
-0.15278268 -0.11548888 1.3335477
-0.14708358 -0.11573914 1.3364373
0.1457324 -0.11562395 1.3351074
0.15167837 -0.11556394 1.3344145
-0.15279828 -0.10587558 1.3336838
-0.14698267 -0.1054473 1.3367378
0.1455773 -0.10554668 1.3353851
0.15169477 -0.10594505 1.3345587
-0.15281582 -0.095058255 1.3338369
-0.1472183 -0.094707459 1.3364438
0.1459181 -0.094812945 1.3352309
0.15171321 -0.095121264 1.3347211
-0.15283336 -0.084238537 1.33399
-0.14711814 -0.084412888 1.3367507
0.14577571 -0.084334143 1.3355039
0.15173168 -0.084294945 1.3348833
-0.15284909 -0.074618928 1.3341269
-0.14712989 -0.074771665 1.3368576
0.14578907 -0.074702792 1.3356262
0.15174808 -0.074669309 1.3350276
-0.1528648 -0.064997353 1.3342642
-0.14714178 -0.06512896 1.3369653
0.14580244 -0.065069675 1.3357486
0.1517645 -0.065041572 1.3351718
-0.15288052 -0.055373799 1.3344011
-0.14715369 -0.055484705 1.3370734
0.1458158 -0.05543479 1.3358709
0.1517809 -0.055411763 1.3353163
-0.15289626 -0.04574826 1.3345385
-0.14716561 -0.045838892 1.3371817
0.14582919 -0.045798149 1.3359933
0.15179732 -0.045779876 1.3354607
-0.15291396 -0.03491712 1.3346931
-0.14717904 -0.034985442 1.3373034
0.14584424 -0.03495476 1.336131
0.15181582 -0.034941457 1.3356231
-0.15293166 -0.024083568 1.3348473
-0.14719245 -0.024130095 1.3374252
0.14585929 -0.024109222 1.3362689
0.15183428 -0.024100496 1.3357859
-0.1529474 -0.014451596 1.3349844
-0.14720437 -0.014479203 1.3375334
0.14587267 -0.014466832 1.3363914
0.15185073 -0.014461828 1.3359302
-0.15296315 -0.0048176423 1.3351218
-0.14721631 -0.0048267515 1.3376417
0.14588606 -0.0048226733 1.3365139
0.15186715 -0.004821077 1.3360748
-0.15297888 0.0048182933 1.3352591
-0.14722826 0.0048272647 1.3377502
0.14589943 0.004823253 1.3366362
0.15188359 0.004821761 1.3362193
-0.15299463 0.01445621 1.3353968
-0.14724019 0.014482845 1.3378584
0.14591281 0.014470949 1.3367587
0.15190004 0.014466687 1.3363639
-0.15301041 0.024096116 1.3355341
-0.14725213 0.024139989 1.3379669
0.14592619 0.024120411 1.3368812
0.15191647 0.024113698 1.3365086
-0.15302815 0.034943424 1.3356888
-0.14726558 0.035006188 1.3380889
0.14594127 0.034978215 1.3370191
0.15193498 0.034969132 1.3366714
-0.15304589 0.045793165 1.3358437
-0.14727902 0.045874298 1.3382109
0.14595632 0.045838173 1.3371571
0.15195349 0.045827113 1.3368342
-0.15306167 0.055439528 1.3359814
-0.14729097 0.055536523 1.3383195
0.14596973 0.055493385 1.3372797
0.15196994 0.055480912 1.3369789
-0.15307748 0.065087877 1.3361193
-0.14730294 0.065200336 1.338428
0.14598311 0.065150373 1.3374023
0.15198641 0.065136813 1.3371236
-0.15397529 0.074476294 1.3351973
-0.14570926 0.074658014 1.3348589
-0.13475995 0.075802475 1.333774
-0.125135 0.075802945 1.3337822
-0.1155108 0.075803988 1.3338004
-0.10588689 0.075805426 1.3338257
-0.095057517 0.075805351 1.3338245
-0.084228218 0.075805396 1.3338253
-0.074602276 0.075805537 1.3338277
-0.064976297 0.075805679 1.3338302
-0.055350278 0.075805821 1.3338327
-0.045724232 0.07580597 1.3338352
-0.034894876 0.075806126 1.3338381
-0.024065483 0.075806275 1.3338408
-0.014439317 0.075806424 1.3338432
-0.0048131137 0.075806566 1.3338457
0.0048131254 0.075806707 1.3338484
0.0144394 0.075806849 1.3338507
0.024065711 0.07580699 1.3338532
0.034895308 0.07580705 1.3338543
0.045725271 0.075807683 1.3338655
0.055351634 0.075807661 1.3338652
0.064978465 0.075808205 1.3338747
0.07460428 0.075807579 1.3338637
0.084231108 0.075807974 1.3338706
0.095060945 0.075808078 1.3338724
0.10589057 0.075807996 1.333871
0.11551625 0.075807534 1.3338629
0.12514308 0.075807825 1.333868
0.13476996 0.075808108 1.333873
0.14535466 0.073759891 1.3360478
0.15282109 0.074868239 1.3362149
-0.15371142 0.084690742 1.3359214
-0.14837362 0.086852863 1.3371832
0.14633794 0.086356416 1.3374947
0.15257213 0.084428258 1.336973
-0.15312459 0.094044708 1.3365301
-0.14838398 0.094097227 1.3372767
0.14602368 0.094132178 1.3377734
0.15203609 0.094117217 1.3375607
-0.15314241 0.10490825 1.3366854
-0.14839953 0.10496564 1.3374169
0.14603886 0.10500453 1.3379124
0.15205488 0.10498991 1.3377259
-0.15316026 0.11577425 1.3368415
-0.14841509 0.11583624 1.3375571
0.14605412 0.11587911 1.3380522
0.15207367 0.11586518 1.337891
-0.15317613 0.1254351 1.3369797
-0.14842886 0.12550089 1.3376811
0.14606768 0.12554735 1.3381763
0.1520904 0.1255344 1.3380381
-0.15511499 0.13402845 1.3355045
-0.14843741 0.13154209 1.3377582
0.14607616 0.13159084 1.3382539
0.1535089 0.13455436 1.3368717
0.16784996 0.21494474 1.3385844
-0.17234415 0.22537321 1.3359798
0.16787817 0.22101945 1.3388095
-0.17240347 0.23268497 1.3364396
-0.16966103 0.23945066 1.3338357
0.16792859 0.23799953 1.3392117
-0.16969848 0.24552147 1.3341303
0.16793522 0.24404982 1.3392644
0.16796261 0.25013137 1.3394829
-0.16362172 -0.13210939 1.3435276
0.1614885 -0.13234772 1.3459513
-0.1631038 -0.12829667 1.3459272
-0.15920125 -0.12760405 1.3471457
-0.14340095 -0.12760255 1.3471296
-0.13489325 -0.12760171 1.3471209
-0.12395494 -0.12760067 1.3471099
-0.11423105 -0.12759846 1.3470867
-0.10450879 -0.12759799 1.3470815
-0.094786927 -0.12759782 1.3470799
-0.085065641 -0.12759843 1.3470863
-0.075343259 -0.1275975 1.3470764
-0.065622628 -0.12759954 1.3470981
-0.055900328 -0.12759855 1.3470876
-0.044962771 -0.12759705 1.3470716
-0.034025822 -0.12759683 1.3470693
-0.024303908 -0.1275955 1.3470554
-0.014582327 -0.12759537 1.3470538
-0.0048607718 -0.12759525 1.3470527
0.0048607662 -0.12759513 1.3470514
0.014582286 -0.12759501 1.3470502
0.024303788 -0.12759489 1.3470489
0.03402527 -0.12759477 1.3470477
0.044961922 -0.12759463 1.3470463
0.055898547 -0.1275945 1.3470448
0.065619968 -0.1275944 1.3470438
0.075341381 -0.12759426 1.3470424
0.085062772 -0.12759416 1.3470411
0.09478464 -0.12759471 1.3470469
0.10450654 -0.12759519 1.3470521
0.11422844 -0.1275956 1.3470564
0.12394959 -0.12759516 1.3470517
0.13488559 -0.1275945 1.3470447
0.14217642 -0.12759422 1.3470418
0.15797436 -0.12759466 1.3470465
0.16155893 -0.12876076 1.3465383
-0.16252661 0.077623397 1.3444726
-0.14627087 0.07253103 1.3400218
0.15877032 0.077567197 1.3434992
0.16196495 0.077938043 1.3499223
-0.16253452 0.081265926 1.344538
-0.14628932 0.087048203 1.3401908
0.15877795 0.081207044 1.3435638
-0.14629734 0.094307423 1.3402643
-0.14630802 0.10398757 1.3403621
-0.14632003 0.11487944 1.3404721
-0.14633204 0.12577304 1.3405821
-0.16275826 0.13481928 1.3463945
-0.15916087 0.13243155 1.3468039
-0.14435668 0.13222927 1.3447466
-0.13486122 0.1324313 1.3468012
-0.12392693 0.13243172 1.3468056
-0.11420634 0.13243073 1.3467953
-0.10448806 0.13243255 1.3468139
-0.094768837 0.13243335 1.3468224
-0.085049003 0.13243341 1.346823
-0.075328439 0.13243227 1.3468109
-0.065608427 0.13243182 1.3468065
-0.055888478 0.13243139 1.3468021
-0.044953622 0.13243094 1.3467976
-0.034018967 0.13243099 1.3467979
-0.024299294 0.13243115 1.3467997
-0.014579594 0.13243131 1.3468015
-0.0048598703 0.13243149 1.3468032
0.0048598833 0.13243175 1.3468057
0.014579648 0.13243182 1.3468068
0.024299357 0.13243151 1.3468034
0.034019046 0.13243128 1.346801
0.044953763 0.13243134 1.3468018
0.055888776 0.13243213 1.3468097
0.065608315 0.13243158 1.3468041
0.075328924 0.13243312 1.3468196
0.085049063 0.13243353 1.346824
0.094769254 0.13243395 1.3468282
0.10448866 0.13243333 1.3468218
0.11421018 0.13243522 1.3468411
0.12392987 0.13243484 1.3468375
0.13486473 0.13243474 1.3468362
0.14215463 0.13243465 1.3468354
0.15844405 0.13416058 1.3458788
-0.17300747 0.22140117 1.3411217
0.17070749 0.22518741 1.3420627
0.17067268 0.23240541 1.3417892
-0.16703136 -0.13167433 1.3515024
0.16504776 -0.13203818 1.355237
-0.16704045 -0.1280237 1.351576
0.16505896 -0.1283792 1.3553289
-0.16756782 0.078279883 1.3558431
-0.16774629 0.13468683 1.3572872
0.16209589 0.1352831 1.3510135
-0.023400279 -0.17488627 1.3652335
-0.014779259 -0.17488793 1.3652463
-0.0049264659 -0.17488974 1.3652606
0.0049265348 -0.17489159 1.3652753
0.014779745 -0.17489347 1.3652897
0.022169782 -0.17489485 1.3653005
-0.023402691 -0.16505051 1.3653741
-0.01478078 -0.16505204 1.3653868
-0.0049269735 -0.1650538 1.3654014
0.0049270424 -0.16505553 1.3654157
0.014781266 -0.1650573 1.3654304
0.022172064 -0.16505861 1.3654411
-0.023405103 -0.15521275 1.3655148
-0.014782301 -0.15521416 1.3655274
-0.0049274806 -0.1552158 1.3655419
0.0049275495 -0.15521747 1.3655562
0.014782788 -0.15521911 1.365571
0.022174347 -0.15522036 1.3655819
-0.023406908 -0.14783312 1.3656201
-0.014783444 -0.14783449 1.3656328
-0.004927861 -0.14783606 1.3656473
0.0049279295 -0.14783764 1.3656619
0.01478393 -0.14783919 1.3656763
0.022176061 -0.14784038 1.3656871
-0.16545686 0.075319931 1.3687351
-0.14446063 0.075317085 1.3686835
-0.13581859 0.075317584 1.3686926
-0.12594183 0.075318158 1.368703
-0.11606548 0.075319104 1.3687202
-0.10495553 0.075321063 1.3687558
-0.093841806 0.075320408 1.3687439
-0.083963908 0.075320564 1.3687468
-0.074085943 0.075320713 1.3687494
-0.064207941 0.075320855 1.368752
-0.054329902 0.075320996 1.3687546
-0.044451822 0.075321145 1.3687572
-0.034573704 0.075321287 1.3687599
-0.024695549 0.075321428 1.3687625
-0.014817358 0.075321577 1.3687651
-0.0049391277 0.075321719 1.3687677
0.0049391403 0.075321868 1.3687704
0.014817411 0.075321816 1.3687694
0.024695955 0.075322725 1.368786
0.034574267 0.075322524 1.3687824
0.044452809 0.075322799 1.3687874
0.054331735 0.07532353 1.3688005
0.06420967 0.075322904 1.3687892
0.074087396 0.075322174 1.3687761
0.08396671 0.075323068 1.3687923
0.093845308 0.075323202 1.3687947
0.10495838 0.075323053 1.3687922
0.11606986 0.075321928 1.3687716
0.12594862 0.075322218 1.3687769
0.13582748 0.075322509 1.368782
0.14323667 0.075322732 1.3687861
0.15929358 0.075324871 1.368825
0.16479874 0.076606609 1.3653595
-0.16546378 0.13212408 1.3687924
-0.14447339 0.13212524 1.3688043
-0.13583004 0.13212559 1.3688079
-0.12595186 0.13212597 1.3688121
-0.11607283 0.13212542 1.3688064
-0.10496048 0.13212675 1.36882
-0.093847744 0.13212776 1.3688304
-0.083968721 0.13212726 1.3688252
-0.074089631 0.13212651 1.3688174
-0.064210802 0.13212605 1.3688128
-0.054332029 0.13212562 1.3688083
-0.04445333 0.13212518 1.3688036
-0.034574799 0.13212512 1.3688033
-0.02469632 0.1321253 1.3688051
-0.01481781 0.13212548 1.368807
-0.0049392763 0.13212566 1.3688086
0.0049392884 0.13212602 1.3688123
0.014817833 0.13212569 1.3688091
0.02469633 0.13212536 1.3688058
0.034574851 0.13212532 1.3688052
0.044453517 0.13212568 1.368809
0.054332063 0.13212572 1.3688095
0.064211093 0.13212664 1.368819
0.074090064 0.13212729 1.3688254
0.083969019 0.13212772 1.36883
0.093848035 0.13212815 1.3688345
0.10496145 0.13212796 1.3688323
0.11607602 0.13212909 1.3688443
0.12595473 0.13212898 1.3688431
0.13583343 0.13212886 1.3688421
0.14324242 0.13212879 1.3688412
0.15929556 0.13212888 1.368842
0.16488107 0.13333222 1.3660357
-0.17029029 -0.12802847 1.3778714
-0.16531509 -0.12802596 1.3778445
-0.14418793 -0.12802893 1.3778763
-0.13424292 -0.12802796 1.377866
-0.12429806 -0.12802699 1.3778557
-0.11435232 -0.12802483 1.3778323
-0.10440835 -0.12802455 1.3778292
-0.094464421 -0.12802419 1.3778254
-0.084521905 -0.12802583 1.3778429
-0.074577063 -0.12802392 1.3778225
-0.06463331 -0.12802374 1.3778207
-0.054691102 -0.12802689 1.3778545
-0.044746839 -0.12802565 1.3778411
-0.034802608 -0.12802383 1.3778216
-0.024858873 -0.12802327 1.3778157
-0.014915331 -0.12802333 1.3778161
-0.0049717179 -0.12802163 1.3777977
0.004971703 -0.12802136 1.377795
0.014915096 -0.12802124 1.3777938
0.024858471 -0.12802112 1.3777925
0.034801826 -0.128021 1.3777912
0.044745166 -0.1280209 1.37779
0.054688483 -0.12802076 1.3777884
0.064631782 -0.12802064 1.3777872
0.074575067 -0.12802052 1.3777859
0.084518328 -0.12802041 1.3777846
0.094462261 -0.1280212 1.3777933
0.10440664 -0.12802242 1.3778062
0.114351 -0.1280234 1.3778169
0.12429407 -0.12802291 1.3778116
0.13423695 -0.12802228 1.3778049
0.14293689 -0.12802173 1.377799
0.16406621 -0.1280214 1.3777953
-0.16695608 0.13180745 1.3915219
-0.14561799 0.1318094 1.3915423
-0.13557577 0.13180979 1.3915465
-0.12553352 0.13181019 1.3915508
-0.11549034 0.13180959 1.3915445
-0.10544893 0.13181119 1.3915614
-0.095406786 0.13181201 1.39157
-0.08536344 0.13181119 1.3915613
-0.075320408 0.13181072 1.3915563
-0.065277465 0.13181025 1.3915515
-0.055234589 0.1318098 1.3915468
-0.045191783 0.13180935 1.391542
-0.035149105 0.13180913 1.3915397
-0.025106534 0.13180931 1.3915415
-0.015063941 0.13180949 1.3915433
-0.0050213276 0.13180989 1.3915477
0.0050213207 0.13180973 1.3915458
0.015063929 0.1318094 1.3915424
0.025106486 0.13180906 1.3915391
0.03514912 0.1318092 1.3915403
0.045191966 0.13180992 1.391548
0.055234779 0.13181025 1.3915513
0.06527783 0.13181099 1.3915591
0.07532081 0.13181143 1.3915638
0.085363872 0.13181186 1.3915684
0.095406994 0.13181229 1.391573
0.10544963 0.13181204 1.3915703
0.11549362 0.13181338 1.3915845
0.12553617 0.13181297 1.3915803
0.13557896 0.13181287 1.3915792
0.14436616 0.13181259 1.3915762
0.16445123 0.13181207 1.3915706
0.16411307 0.18557383 1.39939
-0.1512883 -0.12459029 1.4092816
-0.11066104 -0.12846856 1.4099861
-0.09666986 -0.12846915 1.4099927
-0.072502561 -0.12846945 1.4099959
-0.06359864 -0.12846924 1.4099936
-0.058510337 -0.12846835 1.4099839
-0.013991714 -0.12846935 1.4099947
-0.0076317871 -0.12846847 1.4099852
0.0025439439 -0.12846887 1.4099896
0.015263491 -0.12846781 1.4099779
0.025439065 -0.12846729 1.4099722
0.035614658 -0.12846717 1.4099708
0.045790233 -0.12846704 1.4099694
0.055965781 -0.12846692 1.4099681
0.066141322 -0.12846678 1.4099667
0.075044893 -0.12846668 1.4099655
0.083948448 -0.12846658 1.4099644
0.092852622 -0.12846731 1.4099725
0.1038776 -0.12846904 1.4099913
0.13864559 -0.12846977 1.4099994
0.14662038 -0.12627201 1.4098049
-0.15130316 -0.11443089 1.40942
0.14880058 -0.11446191 1.4098021
-0.15131803 -0.1042695 1.4095585
0.14881539 -0.10429789 1.4099424
-0.1513329 -0.094106093 1.4096969
-0.15134776 -0.0839407 1.4098355
-0.15136079 -0.075044386 1.4099568
-0.16610835 0.074812159 1.4055929
-0.15087971 0.074805908 1.4054754
-0.14454094 0.074806273 1.4054824
-0.13439877 0.074806869 1.4054934
-0.12425644 0.07480745 1.4055045
-0.11411424 0.074808225 1.4055189
-0.10397467 0.074811049 1.4055721
-0.093828872 0.074809514 1.4055431
-0.084953338 0.074809656 1.4055458
-0.076077744 0.074809775 1.4055482
-0.065934174 0.074809924 1.405551
-0.055790558 0.074810073 1.4055537
-0.045646913 0.074810222 1.4055566
-0.035503224 0.074810371 1.4055592
-0.025359495 0.074810512 1.405562
-0.015215649 0.074810162 1.4055554
-0.0050719474 0.074811347 1.4055775
0.0050719478 0.074811578 1.4055821
0.015215836 0.074811272 1.4055762
0.025359839 0.074811503 1.4055805
0.035504118 0.074812233 1.4055943
0.045648605 0.074812979 1.4056083
0.055791579 0.074811414 1.4055789
0.06593477 0.074810624 1.4055641
0.07607989 0.074811876 1.4055874
0.084955901 0.074811943 1.4055887
0.093832597 0.074812464 1.4055986
0.10397556 0.074811667 1.4055836
0.11411765 0.074810468 1.4055611
0.12426142 0.074810445 1.4055607
0.13440575 0.074810743 1.4055663
0.14455155 0.074811757 1.4055852
0.16357788 0.074814692 1.4056405
-0.14663197 -0.12550142 1.4109638
-0.13483438 -0.12847425 1.4100486
-0.12465723 -0.12847327 1.4100378
-0.11575217 -0.12847219 1.4100261
-0.10430321 -0.12847105 1.4100134
-0.091583654 -0.12847154 1.4100189
-0.083952457 -0.12847266 1.4100313
-0.076321274 -0.12847415 1.4100475
-0.06868697 -0.12847006 1.4100027
-0.053425133 -0.12847471 1.4100537
-0.045792826 -0.1284743 1.4100491
-0.035616294 -0.12847303 1.4100354
-0.025439961 -0.12847178 1.4100213
-0.019079715 -0.12847008 1.4100028
-0.0025439959 -0.12847129 1.4100161
0.007631911 -0.12847063 1.4100089
0.097942732 -0.12847033 1.4100057
0.10557596 -0.12847196 1.4100235
0.11447929 -0.12847121 1.4100152
0.12465469 -0.12847066 1.4100091
0.13355799 -0.12847011 1.4100031
0.14513318 -0.12349124 1.41125
-0.14772391 -0.11461426 1.4116784
0.14514478 -0.1145886 1.4113625
-0.14773665 -0.10443531 1.4117999
0.14515801 -0.10441247 1.4114913
-0.1477496 -0.094254747 1.4119238
0.14639093 -0.094200276 1.4111077
-0.14776275 -0.084072515 1.4120493
0.1464047 -0.08402434 1.4112402
-0.14777589 -0.073888466 1.4121748
0.14619602 -0.07419806 1.41146
-0.1513738 -0.066146463 1.410078
-0.14778739 -0.064975969 1.4122847
0.14667401 -0.065443382 1.4113817
-0.15138867 -0.055975568 1.4102166
-0.1477989 -0.05606202 1.4123944
0.14644261 -0.056030706 1.4116057
-0.15140358 -0.045802679 1.4103552
-0.14781204 -0.04587299 1.4125199
0.14645647 -0.045847621 1.411739
-0.15141846 -0.035627797 1.410494
-0.14782518 -0.035682149 1.4126457
0.14647032 -0.035662614 1.4118724
-0.15143348 -0.025450926 1.4106339
-0.14783834 -0.025489496 1.4127712
0.14648427 -0.025475701 1.412007
-0.15144855 -0.015272044 1.4107744
-0.1478515 -0.015295029 1.4128968
0.14649825 -0.015286847 1.4121417
-0.15146363 -0.0050911354 1.4109148
-0.14786465 -0.0050987499 1.4130225
0.14651223 -0.0050960504 1.4122759
-0.15147872 0.0050918013 1.4110553
-0.14787783 0.005099345 1.4131484
0.14652619 0.0050966875 1.4124104
-0.15149382 0.015276767 1.411196
-0.14789097 0.015299253 1.413274
0.14654016 0.015291368 1.4125453
-0.15150891 0.025463762 1.4113365
-0.14790413 0.025500974 1.4133997
0.14655416 0.025487995 1.4126798
-0.15152401 0.035652786 1.4114771
-0.14791727 0.035704508 1.4135251
0.14656812 0.035686556 1.4128145
-0.15153909 0.045843836 1.4116176
-0.14793044 0.045909863 1.413651
0.14658211 0.045887072 1.4129491
-0.15155417 0.056036919 1.4117583
-0.1479436 0.056117024 1.4137765
0.14659607 0.056089532 1.4130839
-0.1515674 0.064957492 1.4118813
-0.14795512 0.065049745 1.4138865
0.14660831 0.065018237 1.4132017
-0.15157683 0.071330294 1.4119692
-0.14796335 0.071431123 1.4139651
0.14661707 0.071396805 1.4132859
-0.15161055 0.094278909 1.4122834
-0.14799301 0.094410092 1.4142486
0.14664863 0.094366141 1.4135901
-0.15162566 0.10448163 1.4124241
-0.14800636 0.10462601 1.414376
0.14666261 0.10457784 1.4137248
-0.15164077 0.11468638 1.4125651
-0.14801973 0.11484378 1.4145036
0.14667659 0.11479148 1.4138594
-0.15165591 0.12489319 1.4127059
-0.14803302 0.12506333 1.4146307
0.14669058 0.12500705 1.413994
-0.15166539 0.1312734 1.4127941
-0.14548516 0.13144805 1.4146736
-0.13531294 0.13148333 1.4150534
-0.12510101 0.13148373 1.4150578
-0.11488821 0.13148312 1.4150512
-0.10467736 0.13148499 1.4150714
-0.094465151 0.13148527 1.4150742
-0.084252261 0.1314846 1.415067
-0.074039616 0.13148415 1.4150621
-0.065103598 0.13148373 1.4150578
-0.056167644 0.13148333 1.4150535
-0.045955181 0.13148288 1.4150486
-0.035742823 0.13148253 1.4150448
-0.02553061 0.13148265 1.4150461
-0.015318409 0.13148305 1.4150504
-0.0051061409 0.13148308 1.4150506
0.0051061241 0.13148275 1.4150472
0.015318338 0.13148242 1.4150436
0.0255305 0.13148209 1.41504
0.035742924 0.13148287 1.4150484
0.0459553 0.1314832 1.4150521
0.056167927 0.131484 1.4150608
0.065103918 0.13148439 1.4150648
0.074039973 0.13148478 1.4150689
0.08425267 0.13148522 1.4150738
0.094465427 0.13148566 1.4150785
0.10467774 0.13148546 1.4150764
0.1148916 0.13148707 1.4150938
0.12510347 0.1314863 1.4150854
0.13531612 0.13148642 1.4150865
0.1454425 0.13141002 1.4142643
0.15976639 0.18532901 1.4168203
0.16490741 0.18536071 1.4170626
0.099281132 0.17664306 1.4292736
0.10572798 0.17664309 1.4292738
0.11604293 0.17664313 1.4292743
-0.14412996 0.13114528 1.4393641
-0.13504104 0.13114563 1.4393679
-0.12465398 0.13114639 1.4393762
-0.11426529 0.13114534 1.4393648
-0.1051779 0.13114776 1.4393913
-0.096088246 0.13114747 1.439388
-0.085699961 0.13114691 1.439382
-0.075311825 0.13114643 1.4393768
-0.064923756 0.13114598 1.4393719
-0.054535761 0.13114552 1.4393668
-0.044147849 0.13114506 1.4393617
-0.03505848 0.13114469 1.4393574
-0.025969278 0.1311449 1.4393598
-0.015581612 0.13114521 1.4393632
-0.0051938584 0.13114488 1.4393595
0.0051938407 0.13114452 1.4393559
0.015581488 0.1311442 1.4393522
0.025969163 0.13114423 1.4393525
0.035058603 0.13114512 1.4393624
0.044148043 0.13114566 1.4393682
0.054536011 0.1311461 1.4393733
-0.16438766 0.18509792 1.4348446
0.15921305 0.18510135 1.4348712
0.16180676 0.18510693 1.4349145
-0.14326717 -0.12894046 1.4437546
-0.13545316 -0.128941 1.4437605
-0.12503356 -0.12894087 1.4437591
-0.11461253 -0.12893908 1.4437391
-0.10419303 -0.1289389 1.4437371
-0.095074795 -0.12893705 1.4437165
-0.08596091 -0.12894137 1.4437649
-0.075541332 -0.12894128 1.4437639
-0.065120399 -0.12893835 1.443731
-0.054700334 -0.12893647 1.4437101
-0.044282701 -0.12894095 1.4437602
-0.035166267 -0.12894295 1.4437827
-0.026048861 -0.12894182 1.4437698
-0.015629161 -0.12894052 1.4437553
-0.0052096779 -0.12893897 1.443738
0.0052095475 -0.12893666 1.4437121
0.015628844 -0.12893786 1.4437256
0.026048023 -0.12893757 1.4437222
0.035164271 -0.12893571 1.4437014
0.044280555 -0.12893456 1.4436886
0.054699451 -0.12893443 1.4436871
0.065118335 -0.12893431 1.4436857
0.07553719 -0.12893417 1.4436842
0.085956022 -0.12893406 1.4436829
0.095074527 -0.12893663 1.4437118
0.10419273 -0.1289385 1.4437327
0.11461372 -0.12894043 1.4437544
0.12503254 -0.12893982 1.4437475
0.13545123 -0.12893915 1.4437401
-0.14332291 0.074267328 1.4443161
-0.13550609 0.074267775 1.444325
-0.12508358 0.074268371 1.4443368
-0.11466087 0.074268967 1.4443483
-0.10424192 0.074272372 1.4444145
-0.095118165 0.07427036 1.4443752
-0.085997425 0.074270509 1.4443781
-0.075573653 0.074270651 1.444381
-0.065149829 0.0742708 1.444384
-0.054725964 0.074270956 1.4443867
-0.04430199 0.074270979 1.4443873
-0.035181049 0.074271224 1.4443921
-0.026060361 0.074272126 1.4444097
-0.015636278 0.074272178 1.4444108
-0.0052120886 0.074272051 1.4444083
0.0052120835 0.074272461 1.4444162
0.015636366 0.074272707 1.4444208
0.026060872 0.07427346 1.4444356
0.03518248 0.074274115 1.4444485
0.044303611 0.07427375 1.4444413
0.054726437 0.074271612 1.4443997
0.065150335 0.074271351 1.4443946
0.075576589 0.074273497 1.4444363
0.085999116 0.074271977 1.4444067
0.095122904 0.074274063 1.4444475
0.10424205 0.074272439 1.4444158
0.11466274 0.074270189 1.4443719
0.12508723 0.074270532 1.4443786
0.1355136 0.074271873 1.4444046
0.14203072 0.074272946 1.4444256
0.015646337 0.17340992 1.4453419
0.025716703 0.17361887 1.4451066
0.03468895 0.17318468 1.4456391
0.0443324 0.17341433 1.4453787
0.054764058 0.1734159 1.4453918
0.065195896 0.17341749 1.4454051
0.07562793 0.1734191 1.4454185
0.083452083 0.1734203 1.4454285
0.10431703 0.17342347 1.4454551
0.11083748 0.17342448 1.4454632
-0.1227589 -0.12943058 1.4791238
-0.11475222 -0.1294298 1.479115
-0.10407744 -0.12942965 1.4791132
-0.094735585 -0.12942751 1.4790888
-0.085398652 -0.12943235 1.479144
-0.074723579 -0.12943189 1.4791389
-0.064048573 -0.12943137 1.4791328
-0.054706801 -0.12942827 1.4790974
-0.045366038 -0.1294266 1.4790784
-0.034693845 -0.12943479 1.479172
-0.024018798 -0.12943459 1.4791696
-0.014678021 -0.12943341 1.4791561
-0.0053374209 -0.12943223 1.4791429
0.0053373482 -0.1294309 1.4791275
0.01467741 -0.12942827 1.4790974
0.024017382 -0.12942709 1.479084
0.034692239 -0.1294286 1.4791012
0.045366473 -0.12942776 1.4790915
0.054706562 -0.12942776 1.4790916
0.064045332 -0.12942496 1.4790595
0.074719347 -0.12942459 1.4790553
0.085393451 -0.12942445 1.4790537
0.094735242 -0.12942696 1.4790826
0.10407791 -0.1294302 1.4791197
0.11475473 -0.12943266 1.4791477
-0.1025297 -0.002663092 1.4760407
-0.097230516 -0.0026638797 1.476477
0.095910788 -0.0026641854 1.4766465
-0.10253757 0.005326712 1.476154
-0.097237676 0.0053282664 1.4765857
0.095918052 0.0053288904 1.476758
-0.10254804 0.015981598 1.4763048
-0.097479351 0.015620792 1.4765757
0.095927715 0.015988113 1.4769067
-0.10255721 0.025306368 1.4764366
-0.096999429 0.024782799 1.4770155
0.095936179 0.025316656 1.4770368
-0.10256638 0.034632888 1.4765688
-0.097263962 0.034642637 1.4769846
0.095944658 0.034646921 1.477167
-0.10257685 0.04529376 1.4767196
-0.097273529 0.045306344 1.4771296
0.095954344 0.045312054 1.4773159
-0.10258734 0.055956814 1.4768705
-0.097515441 0.055602469 1.4771217
0.09622629 0.055709973 1.477396
-0.10259651 0.065288737 1.4770026
-0.097035065 0.064779595 1.4775578
0.094369106 0.064779274 1.4775466
0.10000304 0.065335371 1.4780574
-0.10260306 0.071955413 1.4770969
-0.097297452 0.071974702 1.4774928
0.094634809 0.071976595 1.4775318
0.1000098 0.072007075 1.4781573
-0.10551084 -0.0026711377 1.4805032
-0.10552166 0.0053429832 1.4806552
-0.10553429 0.01469471 1.4808325
-0.10554692 0.024048779 1.4810096
-0.10556135 0.034741823 1.481212
-0.10557579 0.045437794 1.4814144
-0.10558841 0.05479911 1.4815917
-0.10560106 0.064162783 1.4817691
-0.12193816 0.073698886 1.4853802
-0.11523856 0.073699087 1.4853841
-0.10658905 0.072694384 1.4830971
-0.092460811 0.073700644 1.4854156
-0.085760862 0.073700741 1.4854175
-0.075040907 0.07370089 1.4854206
-0.064320385 0.073700503 1.4854126
-0.054940879 0.073701166 1.4854261
-0.045562115 0.073703423 1.4854715
-0.034840778 0.073701695 1.4854367
-0.02412059 0.073701799 1.4854389
-0.014740478 0.073702328 1.4854494
-0.0053601735 0.073702514 1.4854531
0.0053602476 0.073703282 1.4854687
0.014740795 0.073703952 1.4854822
0.024121525 0.07370463 1.4854959
0.034841388 0.073702864 1.4854603
0.045561031 0.073701695 1.4854368
0.054940362 0.07370048 1.4854122
0.0643216 0.073701829 1.4854395
0.075044654 0.073704571 1.4854947
0.085761882 0.073701598 1.4854348
0.10586458 0.073703162 1.4854664
0.11389933 0.073699571 1.4853939
-0.024639476 -0.13004316 1.5174114
-0.015058768 -0.13005304 1.5175265
-0.0082171727 -0.13011461 1.5182451
0.0068457127 -0.13007687 1.5178046
0.015059217 -0.13005684 1.5175709
0.021904439 -0.1300576 1.5175796
-0.094379343 -0.12994258 1.5162377
-0.084808618 -0.12994874 1.5163094
-0.075233281 -0.12994842 1.5163056
-0.065658294 -0.12994884 1.5163106
-0.054713495 -0.1299445 1.51626
-0.045138117 -0.12994306 1.516243
-0.035563797 -0.12994495 1.5162652
0.027361158 -0.12996648 1.5165164
0.03556357 -0.12994391 1.5162532
0.045137674 -0.12994182 1.5162288
0.054713387 -0.12994415 1.5162559
0.065654993 -0.12994218 1.516233
0.075231321 -0.12994505 1.5162663
0.084803328 -0.12994063 1.5162147
0.093010068 -0.12994051 1.5162135
-0.081371106 0.073096082 1.5288243
-0.074479029 0.073099799 1.5289022
-0.064824082 0.073099457 1.528895
-0.055168655 0.073098518 1.5288754
-0.04551388 0.073098041 1.5288653
-0.035859324 0.073097847 1.5288613
-0.024825864 0.073098406 1.528873
-0.015171501 0.073099077 1.5288869
-0.0082754213 0.073099405 1.5288937
0.0068962942 0.073100694 1.528921
0.015171897 0.073100947 1.5289259
0.024826502 0.073100314 1.5289128
0.035859589 0.073098451 1.528874
0.045513138 0.073096871 1.5288409
0.055168547 0.073098309 1.5288709
0.064824454 0.073099852 1.5289034
0.07448031 0.073101088 1.5289291
-0.11535716 0.13301383 1.3048415
-0.10256638 0.034632888 1.4765688
-0.094170637 0.13301603 1.304863
-0.16872066 0.15930781 1.4996157
-0.34421948 0.073125482 1.2645607
-0.059159912 0.15932448 1.4999559
-0.10835283 -0.13205403 1.2511379
0.31652564 0.16575044 1.4487683
-0.22408876 0.072562687 1.2628312
-0.044730328 0.13301387 1.3048419
-0.097515441 0.055602469 1.4771217
-0.3191185 0.074616715 1.2408204
0.14643015 0.16467375 1.500833
-0.32165301 0.073992431 1.2618558
-0.024719456 0.13301423 1.3048452
-0.10259651 0.065288737 1.4770026
-0.19904347 0.074378043 1.2388352
0.058742501 0.16921508 1.5009503
-0.31333005 0.1774876 1.2652702
-0.0047084796 0.13301457 1.3048487
-0.29510391 0.17766613 1.2386911
-0.077904873 0.00073110312 1.3213574
0.16758151 0.16950051 1.5012422
-0.094725154 0.077809855 1.2500429
-0.14676031 0.072352685 1.3455747
0.35119545 0.17377524 1.449013
-0.27491999 0.1775997 1.2375379
