# .PCD v0.7 - Point Cloud Data file format
VERSION 0.7
FIELDS x y z
SIZE 4 4 4
TYPE F F F
COUNT 1 1 1
WIDTH 579
HEIGHT 1
VIEWPOINT 0 0 0 1 0 0 0
POINTS 579
DATA ascii
0.063996345 0.23122898 0.71811658
-0.063246794 0.2485026 0.71859062
-0.04956476 0.24981779 0.71430457
-0.030028995 0.24983636 0.7097261
-0.010390029 0.24985608 0.70746905
0.010389982 0.24985476 0.70746511
0.0300285 0.24983244 0.70971471
0.049564041 0.24981427 0.71429396
0.063245311 0.2484968 0.71857375
-0.086524233 0.14372835 0.73514211
-0.069896199 0.14347769 0.72884804
-0.050156742 0.14343016 0.72617686
-0.029943189 0.14346133 0.72590882
-0.0098241055 0.14342159 0.72600961
0.009824466 0.14342558 0.7260291
0.029945847 0.14347392 0.72597021
0.050162654 0.14344746 0.72626281
0.069899358 0.14348446 0.72888225
0.087236047 0.14382878 0.73556119
-0.10210593 0.23291329 0.73827887
0.073658489 0.22915947 0.72269094
0.089716934 0.23004073 0.73101336
0.10210258 0.2329057 0.73825449
-0.10172808 0.24665871 0.7387892
-0.089795396 0.24974516 0.73195571
-0.072898939 0.25054273 0.72316915
0.072897412 0.25053763 0.72315431
0.089792714 0.24973762 0.73193365
0.10172362 0.24664779 0.73875672
-0.10462745 0.14321829 0.75150251
-0.089123048 0.14640419 0.74942487
-0.072369307 0.14572905 0.75066656
-0.049918059 0.14098817 0.74782693
-0.030135268 0.14099011 0.74767327
-0.010119327 0.1409879 0.74782461
0.010119318 0.14098783 0.74782383
0.030135196 0.14098987 0.74767154
0.04991835 0.14098887 0.74783075
0.072075993 0.14482524 0.75006193
0.088881284 0.14651071 0.74987835
0.10478858 0.14324456 0.75151354
-0.083900832 0.16984399 0.75611579
-0.077901669 0.16992202 0.7571879
0.078525901 0.17002892 0.75693971
0.083906412 0.16985631 0.75617099
-0.12299275 0.23106194 0.75614572
0.1112769 0.22935486 0.74620777
0.12298611 0.23104949 0.75610477
-0.1226244 0.24872403 0.75687349
-0.11083229 0.25011426 0.74684888
0.11082755 0.25010356 0.74681705
0.12267539 0.2486117 0.75686848
-0.12192646 0.14350219 0.77787083
-0.11111469 0.14189477 0.76849532
-0.089874715 0.14070365 0.7682023
-0.070005253 0.14070375 0.76837724
-0.050136711 0.14070584 0.76821405
-0.030030685 0.1407012 0.76853597
-0.0099417903 0.14070554 0.76821262
0.0099417809 0.14070547 0.76821196
0.030030666 0.14070106 0.7685352
0.050137077 0.14070684 0.76821953
0.070651241 0.14242406 0.76761323
0.089876957 0.14070717 0.76822132
0.11107915 0.14186415 0.768484
0.12198952 0.14350097 0.77765107
0.076212116 0.17027591 0.76109779
0.13259652 0.21025415 0.76805878
0.14118002 0.21001481 0.77860385
-0.14208339 0.2325893 0.77758592
-0.13283987 0.22944206 0.76713902
0.13283139 0.22942731 0.76708978
0.14207597 0.23257706 0.77754521
-0.14174543 0.24767721 0.77853113
-0.13253385 0.24996586 0.76798809
0.13259234 0.24999806 0.7680099
0.14173643 0.2476614 0.77848184
-0.12702125 0.14205736 0.79099691
-0.10975423 0.14040238 0.79008794
-0.090038791 0.14040363 0.78989846
-0.070080787 0.14040565 0.78992027
-0.049892511 0.14040279 0.79009008
-0.029935459 0.14040262 0.79008931
-0.0099784816 0.14040257 0.79008865
0.0099784713 0.14040242 0.79008776
0.029935529 0.14040288 0.79009044
0.049892921 0.140404 0.79009682
0.070080772 0.14040564 0.78992009
0.090041123 0.14040725 0.78991884
0.10975732 0.1404063 0.79010981
0.12708348 0.14196788 0.79106623
0.14807773 0.20998108 0.78906977
-0.14965603 0.22991176 0.78987849
0.14964184 0.22988974 0.78980356
-0.14874589 0.24969709 0.78994876
0.14873192 0.24967356 0.78987449
-0.14302255 0.14270176 0.81480056
-0.13202024 0.14112043 0.80764329
-0.11021265 0.14013894 0.80911022
-0.090138882 0.14014022 0.80896181
-0.07007172 0.14013988 0.80911595
-0.049992539 0.14013734 0.80925745
-0.030297602 0.14014116 0.80896729
-0.010218729 0.14013903 0.80911112
0.010218726 0.14013898 0.8091107
0.030297754 0.14014187 0.80897146
0.049992982 0.14013864 0.80926478
0.070071757 0.14013997 0.80911642
0.09014117 0.14014371 0.80898207
0.11021592 0.14014301 0.80913419
0.13200447 0.14110427 0.80755216
0.14299312 0.14267299 0.81463295
0.15006995 0.19443336 0.80869615
0.16160411 0.19629227 0.81632501
0.15673509 0.20970125 0.80435145
0.16192397 0.20975871 0.81586736
-0.1624399 0.22992919 0.81452316
-0.1575508 0.22822845 0.80449188
0.1575309 0.22819968 0.80439043
0.16241713 0.2298971 0.81440896
-0.16139697 0.24855722 0.81350702
-0.15712057 0.2503137 0.80521297
0.15710005 0.25028098 0.80510777
0.16136494 0.24850781 0.81334555
-0.14914642 -0.089822173 0.83486658
0.14920703 -0.089677341 0.8353675
-0.14916758 -0.070065051 0.83514297
0.14925124 -0.070104539 0.83561331
-0.1491687 -0.050393298 0.8354302
0.14921834 -0.050323263 0.83590698
-0.14930306 -0.030064153 0.83563244
0.14941739 -0.029990178 0.83607948
-0.14930832 -0.0098028099 0.83592767
0.14938952 -0.0098081594 0.83638358
-0.14935435 0.0098068183 0.83618438
0.14962327 0.0095377835 0.83650452
-0.14942902 0.029911416 0.83640695
0.1501846 0.029872112 0.83641493
-0.14942229 0.050278787 0.83676016
0.15018079 0.050237365 0.83674884
-0.15029436 0.1097268 0.83710933
0.15035726 0.10955746 0.83755088
-0.14964525 0.13145322 0.83628684
-0.13013776 0.13986145 0.82913709
-0.10994256 0.13986158 0.82913792
-0.090001516 0.13986421 0.8289367
-0.070055917 0.13986246 0.82914323
-0.050109539 0.13986194 0.82914174
-0.029914204 0.13986181 0.82913744
-0.0099805053 0.13986449 0.82893401
0.00998055 0.13986482 0.82893628
0.029914413 0.13986276 0.82914352
0.050109938 0.13986316 0.82914871
0.070056215 0.13986307 0.82914668
0.090003595 0.13986738 0.82895529
0.10994592 0.13986585 0.82916325
0.13014263 0.13986667 0.82916796
0.14975047 0.13138081 0.83658284
-0.15178613 0.14270787 0.82963932
-0.12360878 0.15895627 0.82210785
-0.11911338 0.15906446 0.82011366
0.13201429 0.18769538 0.8277415
0.14910656 0.19330928 0.83012104
0.16456716 0.1947687 0.83059686
-0.16690208 0.21031259 0.82965249
0.16686045 0.21026015 0.8294456
-0.16736278 0.22966531 0.82781988
0.16732271 0.22961003 0.82762182
-0.16549909 0.25079682 0.82526904
0.16546696 0.25074857 0.8251093
0.14473827 0.016671451 0.84001946
0.14475593 0.029557796 0.84012192
0.14478397 0.050030421 0.84028476
-0.14477424 0.10990752 0.84022832
0.14487369 0.10998297 0.84080541
-0.16222605 0.13954225 0.8522706
-0.14612937 0.13396072 0.84463519
-0.13036822 0.13957092 0.85010999
-0.11042908 0.13957112 0.85011095
-0.090105757 0.13957363 0.84995335
-0.069787964 0.13957204 0.85011643
-0.049848363 0.1395715 0.85011327
-0.029908957 0.13957125 0.85011184
-0.0099696461 0.13957113 0.85011101
0.0099697402 0.13957208 0.85011679
0.029909225 0.1395725 0.85011953
0.049848713 0.13957261 0.85012013
0.069788486 0.13957307 0.85012269
0.14618592 0.13401149 0.84496331
-0.16384821 0.14259465 0.85194325
-0.15865852 0.14271626 0.84150457
0.049884629 0.18494886 0.85073179
0.070091553 0.18495157 0.85056812
0.08798898 0.18494952 0.85073489
0.1084761 0.18494697 0.85094333
0.13546933 0.184993 0.84988356
0.14888389 0.19005209 0.84947926
0.16583166 0.19358911 0.84854215
-0.17069595 0.22835325 0.84096915
0.17259011 0.23371209 0.8438679
0.17329742 0.2404788 0.84626353
-0.022638142 -0.16627301 0.86533087
-0.010148285 -0.16627643 0.86534876
0.010148735 -0.16628195 0.86537731
0.022639828 -0.16628535 0.86539525
-0.022643367 -0.15225688 0.86553067
-0.01015063 -0.15226002 0.86554843
0.01015108 -0.15226506 0.86557722
0.022645056 -0.1522682 0.86559498
-0.16516286 0.13932766 0.86769944
-0.14444976 0.13932182 0.86810613
-0.12993425 0.13932739 0.86769736
-0.10996892 0.13933006 0.86751944
-0.090017989 0.13932818 0.86770272
-0.070054457 0.13932596 0.86788392
-0.05009285 0.13932794 0.86770117
-0.030143738 0.13933009 0.86751968
-0.010175901 0.1393275 0.86769861
-0.049763158 0.18465658 0.87127054
-0.030128639 0.18466201 0.87090158
-0.010215672 0.18465959 0.87109023
0.010215698 0.18465994 0.87109178
0.030128805 0.18466295 0.87090611
0.049763568 0.18465805 0.87127733
0.069673739 0.18466361 0.87091327
0.083044372 0.18465365 0.87163365
0.11001621 0.18466172 0.87110001
0.13668044 0.18467949 0.86994833
0.15047896 0.18714899 0.8696267
0.16663417 0.19322844 0.86722231
-0.16702159 0.13909538 0.88447052
-0.14589445 0.13906929 0.88634098
-0.12987225 0.1390761 0.88584119
-0.10990867 0.13907114 0.88621706
-0.089916512 0.13907719 0.88584852
-0.16677482 0.19293889 0.88716292
-0.14684218 0.18471782 0.89162731
-0.13158008 0.18436444 0.89170921
-0.11162431 0.18435861 0.89221418
-0.084272988 0.18434952 0.89290297
-0.070038289 0.18435636 0.89244646
-0.050185077 0.18435939 0.89225203
-0.030046899 0.18435422 0.89264166
-0.0099395355 0.18436001 0.89225543
0.0099395607 0.18436041 0.89225686
0.030047078 0.18435527 0.89264691
0.050185554 0.18436109 0.89226037
0.070039161 0.18435866 0.89245772
0.084274314 0.18435244 0.8929171
0.11162673 0.18436258 0.89223361
0.13158448 0.18437053 0.89173877
0.14684698 0.18472384 0.89165658
0.16678484 0.19295029 0.88721514
-0.1495769 -0.090330772 0.91141528
0.14963804 -0.090367205 0.9117828
-0.14966509 -0.070201501 0.91163737
0.14977098 -0.070129812 0.91202605
-0.14977264 -0.049781557 0.91183996
0.14979973 -0.049700227 0.91224855
-0.14975984 -0.029622929 0.91216183
0.14982779 -0.02963618 0.91256994
-0.1498038 -0.0098768696 0.91242743
0.14987339 -0.0098813726 0.91284615
-0.14984795 0.0098807178 0.91269451
0.14992073 0.0098854946 0.91313243
-0.14989291 0.029650042 0.91296691
0.14996852 0.02966482 0.91342098
-0.14993866 0.049431413 0.91324371
0.15002051 0.049458113 0.91373473
-0.15028599 0.11190083 0.91409558
0.14948432 0.11209869 0.91407114
-0.14887217 0.13130128 0.91228801
-0.16591485 0.19265798 0.90841496
-0.14345782 0.18412271 0.90874517
-0.12495549 0.1840996 0.91049021
-0.11259423 0.18409225 0.9110347
-0.085116662 0.18414664 0.90723681
0.085118026 0.18414958 0.90725118
0.11259667 0.18409625 0.91105461
0.12495863 0.1841042 0.91051298
0.1433488 0.18411495 0.90979141
0.16591631 0.19265968 0.90842265
-0.16311961 0.19238351 0.92908609
-0.1583553 0.19222808 0.93870765
-0.12408356 0.18389182 0.92518586
-0.11651614 0.18392903 0.92256588
0.117351 0.18393312 0.92258638
0.1240865 0.18389617 0.92520779
0.15835775 0.19223107 0.93872225
0.16311429 0.19237734 0.92905635
-0.15449733 0.19206119 0.95094275
0.15519327 0.19207206 0.95052522
-0.10228197 0.010581207 0.97740996
-0.096038058 0.010573658 0.9767189
0.096045971 0.010574468 0.97679257
0.10170394 0.0094034476 0.97750545
-0.10231326 0.029988697 0.97770888
-0.096062556 0.02996585 0.97696745
0.096071318 0.029968411 0.97705024
0.10138923 0.029976532 0.97731215
-0.10234923 0.050292443 0.9780522
-0.096088164 0.050249815 0.97722697
0.096097842 0.050254602 0.97731996
0.10142188 0.050270472 0.97762704
-0.15022178 0.1919018 0.96255636
0.15022588 0.191907 0.96258241
0.10345511 0.012379631 0.98017919
0.10349826 0.030077299 0.98058796
0.10354793 0.05044717 0.98105848
0.089733824 0.13771032 0.98485923
0.11016885 0.13771106 0.98486453
-0.23640065 0.1992913 1.0251464
-0.3214286 0.22377177 1.0266958
-0.1647689 0.21185258 0.99561602
-0.2515766 0.2463824 1.1177402
-0.01505256 0.20369892 0.86551136
-0.049924929 0.23714156 0.71592999
-0.34917888 0.25919026 1.0726303
-0.059708476 0.23804736 0.73976451
-0.0010358157 0.23565614 0.73971921
0.06997107 0.23568386 0.73976618
0.14096212 0.2357107 0.73985815
0.19976841 0.23816861 0.73995858
0.13880439 0.24562798 0.7412433
0.084869929 0.25107089 0.7457118
-0.15769655 0.2569699 0.74838805
0.20026004 0.24053051 0.76220316
-0.050323348 0.037997488 0.77240866
-0.043356884 0.042778105 0.77511913
-0.0099537941 0.044867475 0.770518
0.048736323 0.044862717 0.77354473
0.031027948 0.055108171 0.7732231
0.010299421 0.06099508 0.77138609
0.04872274 0.11642373 0.77516216
-0.21912374 0.15063217 0.77335715
-0.13985384 0.16418184 0.77317268
-0.1650328 0.18156144 0.77214634
0.059971854 0.21259062 0.76910067
0.12001202 0.21261376 0.76912403
0.18000209 0.21263604 0.76926357
0.2399853 0.21266077 0.76928657
0.020524906 0.16761822 0.77725196
0.024417311 0.14921957 0.77455765
0.004549162 0.15677403 0.77454513
-0.072139241 0.22371501 0.7798205
0.072128095 0.23721023 0.77832645
0.27049437 0.10490116 0.7880469
0.11005542 0.031656157 0.79240751
-0.098544396 -0.018871268 0.79814392
-0.030063882 -0.01996528 0.7984646
0.039297175 -0.019967495 0.79928559
-0.019226465 -0.018247982 0.80063605
0.040110257 -0.018228564 0.80029601
0.042903602 -0.012728576 0.79823303
0.016899299 0.004273416 0.79881334
-0.089571476 0.11313394 0.80116493
-0.020019913 0.11317185 0.80075854
0.040000845 0.11317129 0.80080992
0.060311586 0.12253058 0.80137372
0.037896667 0.14104266 0.79922038
-0.032323252 0.14183895 0.79641789
-0.0055608489 0.16056965 0.79944575
0.010141786 0.21971162 0.79857337
-0.24547069 0.24636252 0.79995656
-0.21362667 0.25303331 0.80146283
-0.14653592 0.25963974 0.8014645
-0.018828573 0.059135616 0.80817813
-0.044543859 -0.053902801 0.81901169
-0.073232867 -0.019017622 0.82171369
-0.059969168 -0.01842586 0.81990838
0.0099173449 -0.018425424 0.8199361
0.080131218 -0.018424006 0.81990939
0.091726035 0.015899841 0.82238513
-0.11877768 0.11188311 0.81808537
-0.059913877 0.11161164 0.81814295
-0.00016160868 0.11161219 0.81811482
0.069461241 0.1122064 0.81906986
0.0011693127 0.14068317 0.81959468
-0.0011974197 0.14900012 0.81803793
-0.1325835 0.21940403 0.82008046
-0.18928601 0.23456913 0.81939858
-0.13173123 0.23894252 0.82178384
-0.18847966 0.24639298 0.82089472
-0.13015875 0.25401738 0.82148695
0.02252499 0.21630313 0.82412696
0.050778445 0.14947909 0.82769543
0.23009813 0.18344671 0.82749987
-0.12833239 0.0097286254 0.83763903
-0.069938578 0.0097313253 0.83764857
-0.010003471 0.0097320639 0.83761185
0.050051328 0.0097336927 0.8375836
0.063073494 0.043951955 0.8379944
-0.0055070356 0.11810205 0.83592075
-0.069970675 0.13406788 0.83888596
-0.0090920823 0.13400607 0.83919686
0.049660023 0.13435031 0.83977562
-0.18014073 0.2113298 0.83942419
-0.21992779 0.22985661 0.83991438
-0.21102619 0.23471789 0.83929259
-0.14989614 0.23410328 0.83925074
-0.090024687 0.23412691 0.83931851
0.10077264 0.23577559 0.8393389
0.14941575 0.24405859 0.83991629
0.13027948 0.25966248 0.84028894
0.10997192 0.10703758 0.85070807
0.17009525 0.12396508 0.8509801
0.0027818382 0.034490902 0.85755759
0.0017399689 -0.022107219 0.85973161
-0.089990035 -0.018974245 0.85951293
-0.02009722 -0.018973405 0.85948634
0.040039714 -0.018972373 0.85948974
0.1000737 -0.018971911 0.85950559
0.046024997 0.025264606 0.86260056
-0.12003591 0.10993126 0.85867363
-0.050111979 0.11106479 0.85763735
0.020074429 0.11106544 0.85766554
0.080059774 0.11106684 0.85762686
0.16799365 0.21057089 1.2342132
-0.046777207 0.17671551 1.2380304
-0.3698498 0.17633443 1.2444662
-0.33997357 0.20178559 1.2439345
-0.31039557 0.22722371 1.2443068
-0.10955834 0.22735937 1.2450579
0.02326134 0.22744833 1.2453322
0.11975905 0.22750735 1.2457088
0.15343565 0.23228349 1.2452111
0.25276661 0.2418818 1.2434354
0.34995791 0.24194711 1.243261
0.2673924 0.25389203 1.2475401
-0.065395512 0.25384009 1.2540712
-0.0030030112 0.17631631 1.2691036
0.055077966 0.17634852 1.2692763
0.11514906 0.17638142 1.2694836
0.17519446 0.17641491 1.2696215
0.23526472 0.17645849 1.2690696
0.24476051 0.21461472 1.2681818
0.14000131 0.22719926 1.2707313
-0.036824737 0.22699033 1.2748055
0.06021018 0.22704832 1.2752866
0.1192775 0.2270741 1.2759064
-0.283308 0.23620838 1.2791137
-0.2398371 0.24097997 1.2793714
-0.17008878 0.24102013 1.2794653
-0.11009336 0.24105205 1.2797099
-0.16330785 0.24097063 1.2817055
-0.36071062 0.2497685 1.2845013
0.10571013 0.1760264 1.2953169
-0.29085711 0.17561275 1.3015199
-0.37955138 0.21018548 1.3057965
-0.33416617 0.2135471 1.3059098
-0.28997087 0.21866012 1.3062011
-0.20937097 0.22359657 1.3054713
0.062293831 0.22569703 1.3049618
0.099826604 0.22667007 1.3043703
0.23334534 0.22678006 1.3045491
0.3299962 0.22684062 1.3048453
0.38252562 0.23040809 1.305274
0.39986238 0.24111597 1.305408
0.16614087 0.24095462 1.3108224
0.22488929 0.24088068 1.3098359
0.24517648 0.2455864 1.310167
0.091616236 0.24280906 1.3270979
0.034942716 0.17547314 1.3298206
0.095319904 0.1755069 1.3299711
0.15504901 0.17554046 1.3301035
0.21234374 0.1868033 1.329489
0.25175744 0.22066922 1.3284919
0.26982811 0.22647083 1.329471
0.3701086 0.22653271 1.3298483
0.34844288 0.22646904 1.3323325
0.083781779 0.2261752 1.337284
-0.32875222 0.2352785 1.341868
-0.27995777 0.24005418 1.3418257
-0.20970957 0.24010263 1.3413796
-0.14989652 0.24015914 1.3399071
0.37373337 0.18809375 1.3528223
-0.2795417 0.22558506 1.3611368
0.19033325 0.17498744 1.372046
0.25998268 0.17502999 1.3719525
0.28649351 0.20893253 1.3721148
-0.29318851 0.22530739 1.3794942
-0.22948985 0.10643733 2.685915
-0.17664428 -0.29714319 2.9915924
-0.11756299 -0.29710495 2.9919386
-0.026479602 -0.29704577 2.9924662
-0.12332036 -0.29714909 2.994025
-0.088450253 -0.29714525 2.9952726
0.053647254 -0.2970506 2.9960694
0.14384247 -0.29699218 2.996599
0.23518974 -0.29693282 2.9971287
-0.34785733 -0.30017915 2.2493925
-0.26532495 -0.34614304 2.2641177
-0.39357781 -0.31746417 2.2714877
-0.16032751 -0.32312259 2.2780504
-0.32234329 -0.35484609 2.2911537
-0.25034964 -0.36915106 2.2925072
-0.080996901 -0.38855791 2.2960997
-0.20681964 -0.38521394 2.2989419
-0.15591881 -0.34448579 2.2999799
-0.071294531 -0.33711609 2.299782
-0.28017005 -0.3575733 2.3135526
-0.18496901 -0.35516107 2.3156173
-0.1129227 -0.39256346 2.3203554
-0.0055153999 -0.38469964 2.3209627
-0.17481598 -0.28812808 2.329978
-0.29049742 -0.34061038 2.3355315
-0.1745543 -0.34985092 2.3361185
-0.27582157 -0.40019017 2.509871
-0.26447275 -0.40708598 2.5118315
-0.16764851 -0.35718384 2.5119469
0.058037713 -0.33712557 2.5123613
-0.026569627 -0.31912026 2.5139701
-0.20820141 -0.30715257 2.5163858
-0.041160688 -0.30304623 2.5171607
0.0075334255 -0.29136369 2.5182102
0.017793784 -0.35801923 2.5211442
0.15014453 -0.35695368 2.5216374
0.27644268 -0.34126008 2.5233028
0.38834155 -0.38564646 2.5273008
0.11610583 -0.49794251 2.5175979
-0.200553 -0.48461226 2.5731101
-0.038509324 -0.39782533 2.6558528
-0.25029212 -0.37691551 2.6599119
-0.14138059 -0.33543742 2.5875115
-0.094064742 -0.4710049 2.6705198
-0.10141604 -0.397019 2.6776485
0.069166929 -0.3750914 2.6781945
0.16291809 -0.36786029 2.6801951
0.22394116 -0.35937846 2.6817715
0.25127786 -0.32347959 2.6827612
0.2597858 -0.30868426 2.6856432
-0.11463458 -0.30536315 2.6903658
-0.23359115 -0.30425492 2.5953212
-0.39031971 -0.56706923 2.6255372
-0.30054337 -0.58824849 2.6964328
-0.18472195 -0.54435384 2.6964669
-0.3441776 -0.52624959 2.7001624
-0.15618363 -0.38576388 2.7043221
0.012403743 -0.33627442 2.6627834
-0.1319712 -0.4266659 2.7118785
0.028824048 -0.40614423 2.7115734
-0.16856861 -0.38118622 2.7155259
-0.16074489 -0.382954 2.7197113
-0.068234734 -0.36300996 2.7202437
0.021260999 -0.33116642 2.7210405
-0.095040359 -0.31029722 2.7244103
-0.033731654 -0.30190277 2.7246563
-0.12840681 -0.33146313 2.6356771
0.12279139 -0.43995398 2.7289259
0.21640563 -0.44043243 2.7306752
0.16901998 -0.42428982 2.7332437
-0.029422177 -0.39092386 2.7371094
0.047913909 -0.35199955 2.6824598
0.15991229 -0.43220237 2.7419963
0.13159646 -0.4342438 2.7446413
-0.0012207098 -0.43075147 2.7069631
0.16292487 -0.47565404 2.6262524
0.15918586 -0.54666239 2.5250833
0.028327517 -0.63966435 2.6330118
0.042173307 -0.61932743 2.6354289
-0.082576953 -0.59763366 2.6381531
-0.1190751 -0.57388759 2.6652453
-0.05888968 -0.54939353 2.6846488
-0.016382879 -0.5283165 2.687206
0.12883931 -0.50717896 2.68993
0.042577557 -0.48616832 2.6924167
0.3380084 -0.47776461 2.388469
0.39986658 -0.47267577 2.3922913
0.19654851 -0.49530506 2.398793
0.38823158 -0.48657072 2.5581713
0.3555032 -0.4801366 2.5656619
0.30299628 -0.47742864 2.568126
0.34960517 -0.5038892 2.5717859
0.38656953 -0.49077314 2.5744982
0.36712062 -0.47964382 2.5766246
0.37288031 -0.47857425 2.5879219
0.25503853 -0.49174145 2.5925782
0.22271249 -0.50870502 2.6516008
0.3713249 -0.48629734 2.6524675
